-30.000000 123.237935 548.036486
-30.000000 123.075837 550.600994
-30.000000 122.712473 553.150367
-30.000000 122.149304 555.674338
-30.000000 121.388600 558.162745
-30.000000 120.433424 560.605568
-30.000000 119.287620 562.992970
-30.000000 117.955804 565.315339
-30.000000 116.443338 567.563322
-30.000000 114.756312 569.727869
-30.000000 112.901519 571.800263
-30.000000 110.886428 573.772159
-30.000000 108.719152 575.635617
-30.000000 106.408419 577.383134
-30.000000 103.963534 579.007673
-30.000000 101.394340 580.502693
-30.000000 98.711183 581.862174
-30.000000 95.924868 583.080641
-30.000000 93.046613 584.153188
-30.000000 90.088009 585.075498
-30.000000 87.060968 585.843854
-30.000000 83.977680 586.455165
-30.000000 80.850560 586.906967
-30.000000 77.692199 587.197443
-30.000000 74.515316 587.325422
-30.000000 71.332702 587.290390
-30.000000 68.157172 587.092486
-30.000000 65.001515 586.732508
-30.000000 61.878435 586.211906
-30.000000 58.800509 585.532775
-30.000000 55.780130 584.697851
-30.000000 52.829461 583.710495
-30.000000 49.960383 582.574684
-30.000000 47.184448 581.294990
-30.000000 44.512834 579.876566
-30.000000 41.956299 578.325124
-30.000000 39.525137 576.646912
-30.000000 37.229138 574.848686
-30.000000 35.077547 572.937687
-30.000000 33.079026 570.921611
-30.000000 31.241625 568.808575
-30.000000 29.572741 566.607088
-30.000000 28.079094 564.326015
-30.000000 26.766699 561.974540
-30.000000 25.640840 559.562132
-30.000000 24.706051 557.098505
-30.000000 23.966096 554.593580
-30.000000 23.423954 552.057442
-30.000000 23.081808 549.500303
-30.000000 22.941036 546.932461
-30.000000 23.002205 544.364256
-30.000000 23.265069 541.806028
-30.000000 23.728569 539.268078
-30.000000 24.390838 536.760626
-30.000000 25.249211 534.293770
-30.000000 26.300230 531.877440
-30.000000 27.539664 529.521369
-30.000000 28.962521 527.235042
-30.000000 30.563073 525.027665
-30.000000 32.334875 522.908128
-30.000000 34.270792 520.884965
-30.000000 36.363028 518.966321
-30.000000 38.603160 517.159924
-30.000000 40.982167 515.473047
-30.000000 43.490470 513.912482
-30.000000 46.117968 512.484513
-30.000000 48.854081 511.194889
-30.000000 51.687793 510.048805
-30.000000 54.607693 509.050874
-30.000000 57.602023 508.205116
-30.000000 60.658726 507.514934
-30.000000 63.765494 506.983110
-30.000000 66.909818 506.611784
-30.000000 70.079035 506.402451
-30.000000 73.260386 506.355955
-30.000000 76.441059 506.472481
-30.000000 79.608247 506.751563
-30.000000 82.749197 507.192074
-30.000000 85.851261 507.792243
-30.000000 88.901950 508.549652
-30.000000 91.888977 509.461250
-30.000000 94.800317 510.523369
-30.000000 97.624245 511.731730
-30.000000 100.349392 513.081469
-30.000000 102.964783 514.567149
-30.000000 105.459887 516.182790
-30.000000 107.824658 517.921885
-30.000000 110.049574 519.777431
-30.000000 112.125675 521.741957
-30.000000 114.044602 523.807553
-30.000000 115.798628 525.965901
-30.000000 117.380690 528.208311
-30.000000 118.784417 530.525751
-30.000000 120.004158 532.908893
-30.000000 121.035001 535.348138
-30.000000 121.872795 537.833666
-30.000000 122.514167 540.355467
-30.000000 122.956534 542.903388
-30.000000 123.198114 545.467169
-30.000000 123.237935 548.036486
-10.000000 115.592167 546.546486
-10.000000 115.238619 548.773062
-10.000000 114.720900 550.970627
-10.000000 114.041094 553.130332
-10.000000 113.201940 555.243480
-10.000000 112.206815 557.301562
-10.000000 111.059728 559.296291
-10.000000 109.765296 561.219635
-10.000000 108.328733 563.063849
-10.000000 106.755822 564.821508
-10.000000 105.052897 566.485534
-10.000000 103.226816 568.049226
-10.000000 101.284931 569.506289
-10.000000 99.235061 570.850854
-10.000000 97.085461 572.077509
-10.000000 94.844787 573.181313
-10.000000 92.522060 574.157821
-10.000000 90.126633 575.003103
-10.000000 87.668153 575.713754
-10.000000 85.156518 576.286913
-10.000000 82.601843 576.720271
-10.000000 80.014412 577.012085
-10.000000 77.404647 577.161178
-10.000000 74.783054 577.166950
-10.000000 72.160191 577.029379
-10.000000 69.546618 576.749018
-10.000000 66.952860 576.326996
-10.000000 64.389360 575.765013
-10.000000 61.866442 575.065330
-10.000000 59.394263 574.230767
-10.000000 56.982779 573.264682
-10.000000 54.641699 572.170967
-10.000000 52.380451 570.954025
-10.000000 50.208140 569.618757
-10.000000 48.133512 568.170538
-10.000000 46.164922 566.615202
-10.000000 44.310296 564.959009
-10.000000 42.577102 563.208630
-10.000000 40.972320 561.371112
-10.000000 39.502411 559.453855
-10.000000 38.173293 557.464578
-10.000000 36.990320 555.411293
-10.000000 35.958254 553.302265
-10.000000 35.081251 551.145989
-10.000000 34.362842 548.951146
-10.000000 33.805920 546.726574
-10.000000 33.412729 544.481231
-10.000000 33.184850 542.224158
-10.000000 33.123201 539.964444
-10.000000 33.228032 537.711187
-10.000000 33.498919 535.473461
-10.000000 33.934772 533.260275
-10.000000 34.533836 531.080543
-10.000000 35.293698 528.943041
-10.000000 36.211300 526.856376
-10.000000 37.282945 524.828949
-10.000000 38.504319 522.868926
-10.000000 39.870505 520.984198
-10.000000 41.376000 519.182354
-10.000000 43.014743 517.470650
-10.000000 44.780135 515.855978
-10.000000 46.665067 514.344840
-10.000000 48.661950 512.943320
-10.000000 50.762742 511.657063
-10.000000 52.958985 510.491247
-10.000000 55.241835 509.450566
-10.000000 57.602100 508.539212
-10.000000 60.030276 507.760854
-10.000000 62.516585 507.118626
-10.000000 65.051016 506.615114
-10.000000 67.623364 506.252345
-10.000000 70.223271 506.031781
-10.000000 72.840268 505.954309
-10.000000 75.463817 506.020241
-10.000000 78.083354 506.229313
-10.000000 80.688331 506.580681
-10.000000 83.268258 507.072932
-10.000000 85.812748 507.704083
-10.000000 88.311555 508.471592
-10.000000 90.754617 509.372369
-10.000000 93.132095 510.402788
-10.000000 95.434418 511.558699
-10.000000 97.652315 512.835446
-10.000000 99.776854 514.227891
-10.000000 101.799481 515.730425
-10.000000 103.712052 517.336998
-10.000000 105.506866 519.041142
-10.000000 107.176694 520.835994
-10.000000 108.714814 522.714327
-10.000000 110.115033 524.668578
-10.000000 111.371711 526.690877
-10.000000 112.479788 528.773082
-10.000000 113.434804 530.906809
-10.000000 114.232911 533.083464
-10.000000 114.870898 535.294285
-10.000000 115.346194 537.530368
-10.000000 115.656885 539.782710
-10.000000 115.801722 542.042241
-10.000000 115.780120 544.299863
-10.000000 115.592167 546.546486
9.000000 109.468746 540.575838
9.000000 109.227385 542.481402
9.000000 108.844878 544.366634
9.000000 108.322765 546.223942
9.000000 107.663148 548.045849
9.000000 106.868683 549.825017
9.000000 105.942569 551.554284
9.000000 104.888535 553.226684
9.000000 103.710826 554.835485
9.000000 102.414184 556.374208
9.000000 101.003829 557.836658
9.000000 99.485441 559.216945
9.000000 97.865134 560.509512
9.000000 96.149433 561.709154
9.000000 94.345245 562.811041
9.000000 92.459836 563.810734
9.000000 90.500797 564.704211
9.000000 88.476017 565.487871
9.000000 86.393649 566.158560
9.000000 84.262077 566.713578
9.000000 82.089886 567.150689
9.000000 79.885822 567.468134
9.000000 77.658758 567.664633
9.000000 75.417665 567.739396
9.000000 73.171564 567.692122
9.000000 70.929501 567.523002
9.000000 68.700504 567.232715
9.000000 66.493547 566.822431
9.000000 64.317518 566.293803
9.000000 62.181179 565.648958
9.000000 60.093131 564.890493
9.000000 58.061784 564.021463
9.000000 56.095315 563.045366
9.000000 54.201644 561.966134
9.000000 52.388396 560.788111
9.000000 50.662872 559.516041
9.000000 49.032020 558.155047
9.000000 47.502407 556.710608
9.000000 46.080193 555.188541
9.000000 44.771103 553.594974
9.000000 43.580409 551.936325
9.000000 42.512906 550.219273
9.000000 41.572892 548.450730
9.000000 40.764152 546.637819
9.000000 40.089944 544.787839
9.000000 39.552980 542.908240
9.000000 39.155425 541.006590
9.000000 38.898877 539.090546
9.000000 38.784372 537.167824
9.000000 38.812369 535.246166
9.000000 38.982756 533.333309
9.000000 39.294847 531.436956
9.000000 39.747385 529.564743
9.000000 40.338547 527.724209
9.000000 41.065955 525.922764
9.000000 41.926678 524.167663
9.000000 42.917250 522.465973
9.000000 44.033684 520.824546
9.000000 45.271483 519.249991
9.000000 46.625663 517.748649
9.000000 48.090772 516.326565
9.000000 49.660910 514.989464
9.000000 51.329754 513.742732
9.000000 53.090585 512.591388
9.000000 54.936313 511.540069
9.000000 56.859506 510.593007
9.000000 58.852418 509.754016
9.000000 60.907027 509.026475
9.000000 63.015058 508.413313
9.000000 65.168023 507.916999
9.000000 67.357253 507.539531
9.000000 69.573933 507.282430
9.000000 71.809137 507.146730
9.000000 74.053864 507.132978
9.000000 76.299076 507.241230
9.000000 78.535732 507.471050
9.000000 80.754827 507.821511
9.000000 82.947423 508.291204
9.000000 85.104694 508.878236
9.000000 87.217951 509.580244
9.000000 89.278686 510.394401
9.000000 91.278601 511.317430
9.000000 93.209643 512.345612
9.000000 95.064036 513.474808
9.000000 96.834313 514.700472
9.000000 98.513346 516.017667
9.000000 100.094375 517.421090
9.000000 101.571032 518.905090
9.000000 102.937372 520.463692
9.000000 104.187894 522.090618
9.000000 105.317561 523.779319
9.000000 106.321825 525.522995
9.000000 107.196642 527.314624
9.000000 107.938490 529.146992
9.000000 108.544381 531.012721
9.000000 109.011876 532.904298
9.000000 109.339092 534.814106
9.000000 109.524712 536.734456
9.000000 109.567988 538.657614
9.000000 109.468746 540.575838
29.000000 107.933817 541.480680
29.000000 107.789800 543.362417
29.000000 107.509155 545.231086
29.000000 107.093013 547.079163
29.000000 106.543049 548.899206
29.000000 105.861478 550.683887
29.000000 105.051044 552.426018
29.000000 104.115011 554.118586
29.000000 103.057147 555.754775
29.000000 101.881712 557.327996
29.000000 100.593440 558.831915
29.000000 99.197517 560.260475
29.000000 97.699565 561.607926
29.000000 96.105615 562.868840
29.000000 94.422086 564.038141
29.000000 92.655757 565.111120
29.000000 90.813739 566.083457
29.000000 88.903450 566.951236
29.000000 86.932583 567.710964
29.000000 84.909073 568.359580
29.000000 82.841068 568.894475
29.000000 80.736895 569.313492
29.000000 78.605027 569.614946
29.000000 76.454049 569.797623
29.000000 74.292621 569.860786
29.000000 72.129447 569.804182
29.000000 69.973237 569.628038
29.000000 67.832673 569.333064
29.000000 65.716375 568.920448
29.000000 63.632865 568.391850
29.000000 61.590531 567.749400
29.000000 59.597599 566.995685
29.000000 57.662091 566.133738
29.000000 55.791803 565.167032
29.000000 53.994265 564.099458
29.000000 52.276715 562.935316
29.000000 50.646069 561.679292
29.000000 49.108893 560.336446
29.000000 47.671377 558.912182
29.000000 46.339309 557.412238
29.000000 45.118053 555.842652
29.000000 44.012527 554.209745
29.000000 43.027182 552.520091
29.000000 42.165985 550.780495
29.000000 41.432405 548.997961
29.000000 40.829395 547.179666
29.000000 40.359384 545.332934
29.000000 40.024263 543.465198
29.000000 39.825383 541.583981
29.000000 39.763545 539.696857
29.000000 39.838996 537.811426
29.000000 40.051434 535.935278
29.000000 40.400003 534.075969
29.000000 40.883299 532.240985
29.000000 41.499377 530.437715
29.000000 42.245755 528.673421
29.000000 43.119429 526.955206
29.000000 44.116880 525.289990
29.000000 45.234092 523.684476
29.000000 46.466566 522.145131
29.000000 47.809339 520.678153
29.000000 49.257005 519.289449
29.000000 50.803735 517.984609
29.000000 52.443300 516.768890
29.000000 54.169098 515.647185
29.000000 55.974181 514.624012
29.000000 57.851279 513.703490
29.000000 59.792834 512.889327
29.000000 61.791029 512.184800
29.000000 63.837817 511.592747
29.000000 65.924957 511.115550
29.000000 68.044044 510.755133
29.000000 70.186546 510.512946
29.000000 72.343835 510.389964
29.000000 74.507225 510.386683
29.000000 76.668005 510.503115
29.000000 78.817474 510.738793
29.000000 80.946977 511.092766
29.000000 83.047939 511.563610
29.000000 85.111900 512.149429
29.000000 87.130549 512.847863
29.000000 89.095759 513.656101
29.000000 90.999615 514.570888
29.000000 92.834452 515.588541
29.000000 94.592882 516.704961
29.000000 96.267823 517.915653
29.000000 97.852531 519.215743
29.000000 99.340627 520.599995
29.000000 100.726116 522.062835
29.000000 102.003421 523.598373
29.000000 103.167398 525.200427
29.000000 104.213360 526.862544
29.000000 105.137096 528.578033
29.000000 105.934886 530.339985
29.000000 106.603518 532.141306
29.000000 107.140299 533.974742
29.000000 107.543067 535.832912
29.000000 107.810202 537.708332
29.000000 107.940627 539.593452
29.000000 107.933817 541.480680
49.000000 102.189026 534.620432
49.000000 102.368507 536.290666
49.000000 102.427232 537.971477
49.000000 102.364965 539.656095
49.000000 102.181956 541.337737
49.000000 101.878944 543.009632
49.000000 101.457147 544.665049
49.000000 100.918265 546.297320
49.000000 100.264466 547.899874
49.000000 99.498385 549.466258
49.000000 98.623104 550.990164
49.000000 97.642150 552.465456
49.000000 96.559472 553.886194
49.000000 95.379429 555.246656
49.000000 94.106773 556.541366
49.000000 92.746629 557.765108
49.000000 91.304473 558.912957
49.000000 89.786112 559.980289
49.000000 88.197661 560.962808
49.000000 86.545516 561.856556
49.000000 84.836328 562.657935
49.000000 83.076981 563.363718
49.000000 81.274559 563.971064
49.000000 79.436319 564.477526
49.000000 77.569663 564.881065
49.000000 75.682108 565.180057
49.000000 73.781254 565.373297
49.000000 71.874756 565.460008
49.000000 69.970289 565.439839
49.000000 68.075524 565.312873
49.000000 66.198088 565.079621
49.000000 64.345543 564.741022
49.000000 62.525347 564.298438
49.000000 60.744830 563.753654
49.000000 59.011161 563.108861
49.000000 57.331321 562.366656
49.000000 55.712075 561.530029
49.000000 54.159943 560.602347
49.000000 52.681173 559.587347
49.000000 51.281722 558.489115
49.000000 49.967223 557.312073
49.000000 48.742971 556.060962
49.000000 47.613894 554.740818
49.000000 46.584539 553.356958
49.000000 45.659051 551.914954
49.000000 44.841157 550.420612
49.000000 44.134149 548.879949
49.000000 43.540875 547.299170
49.000000 43.063724 545.684639
49.000000 42.704616 544.042858
49.000000 42.464999 542.380437
49.000000 42.345836 540.704071
49.000000 42.347608 539.020509
49.000000 42.470307 537.336531
49.000000 42.713440 535.658918
49.000000 43.076027 533.994424
49.000000 43.556609 532.349752
49.000000 44.153249 530.731524
49.000000 44.863547 529.146257
49.000000 45.684641 527.600334
49.000000 46.613226 526.099980
49.000000 47.645562 524.651235
49.000000 48.777493 523.259935
49.000000 50.004460 521.931680
49.000000 51.321523 520.671820
49.000000 52.723379 519.485427
49.000000 54.204383 518.377278
49.000000 55.758571 517.351837
49.000000 57.379685 516.413231
49.000000 59.061199 515.565240
49.000000 60.796339 514.811280
49.000000 62.578121 514.154384
49.000000 64.399369 513.597200
49.000000 66.252750 513.141970
49.000000 68.130801 512.790528
49.000000 70.025960 512.544288
49.000000 71.930595 512.404242
49.000000 73.837037 512.370954
49.000000 75.737610 512.444558
49.000000 77.624661 512.624758
49.000000 79.490590 512.910828
49.000000 81.327886 513.301616
49.000000 83.129149 513.795549
49.000000 84.887127 514.390637
49.000000 86.594741 515.084485
49.000000 88.245115 515.874299
49.000000 89.831603 516.756898
49.000000 91.347817 517.728728
49.000000 92.787653 518.785876
49.000000 94.145311 519.924086
49.000000 95.415326 521.138774
49.000000 96.592583 522.425049
49.000000 97.672343 523.777732
49.000000 98.650257 525.191376
49.000000 99.522387 526.660289
49.000000 100.285222 528.178556
49.000000 100.935690 529.740063
49.000000 101.471173 531.338523
49.000000 101.889513 532.967499
49.000000 102.189026 534.620432
69.000000 94.676426 530.227513
69.000000 95.167095 531.676375
69.000000 95.550860 533.159287
69.000000 95.826175 534.670276
69.000000 95.991931 536.203260
69.000000 96.047462 537.752065
69.000000 95.992543 539.310455
69.000000 95.827396 540.872154
69.000000 95.552686 542.430875
69.000000 95.169519 543.980341
69.000000 94.679437 545.514312
69.000000 94.084415 547.026612
69.000000 93.386848 548.511152
69.000000 92.589544 549.961953
69.000000 91.695715 551.373174
69.000000 90.708960 552.739133
69.000000 89.633252 554.054328
69.000000 88.472921 555.313465
69.000000 87.232642 556.511473
69.000000 85.917407 557.643528
69.000000 84.532513 558.705073
69.000000 83.083537 559.691831
69.000000 81.576312 560.599831
69.000000 80.016907 561.425415
69.000000 78.411603 562.165260
69.000000 76.766863 562.816387
69.000000 75.089310 563.376173
69.000000 73.385698 563.842364
69.000000 71.662888 564.213084
69.000000 69.927816 564.486839
69.000000 68.187470 564.662528
69.000000 66.448856 564.739443
69.000000 64.718977 564.717273
69.000000 63.004796 564.596109
69.000000 61.313218 564.376438
69.000000 59.651052 564.059145
69.000000 58.024993 563.645508
69.000000 56.441588 563.137191
69.000000 54.907211 562.536243
69.000000 53.428043 561.845081
69.000000 52.010039 561.066491
69.000000 50.658908 560.203606
69.000000 49.380092 559.259902
69.000000 48.178739 558.239178
69.000000 47.059688 557.145544
69.000000 46.027443 555.983405
69.000000 45.086162 554.757439
69.000000 44.239635 553.472583
69.000000 43.491270 552.134010
69.000000 42.844082 550.747112
69.000000 42.300675 549.317472
69.000000 41.863237 547.850847
69.000000 41.533532 546.353142
69.000000 41.312885 544.830389
69.000000 41.202186 543.288718
69.000000 41.201879 541.734338
69.000000 41.311968 540.173508
69.000000 41.532007 538.612512
69.000000 41.861111 537.057636
69.000000 42.297956 535.515141
69.000000 42.840781 533.991238
69.000000 43.487401 532.492063
69.000000 44.235213 531.023653
69.000000 45.081205 529.591921
69.000000 46.021971 528.202632
69.000000 47.053722 526.861380
69.000000 48.172305 525.573565
69.000000 49.373214 524.344374
69.000000 50.651615 523.178755
69.000000 52.002359 522.081403
69.000000 53.420008 521.056736
69.000000 54.898854 520.108880
69.000000 56.432941 519.241651
69.000000 58.016092 518.458542
69.000000 59.641933 517.762706
69.000000 61.303916 517.156945
69.000000 62.995350 516.643698
69.000000 64.709424 516.225031
69.000000 66.439236 515.902631
69.000000 68.177820 515.677796
69.000000 69.918176 515.551431
69.000000 71.653296 515.524044
69.000000 73.376194 515.595747
69.000000 75.079931 515.766250
69.000000 76.757648 516.034868
69.000000 78.402588 516.400517
69.000000 80.008129 516.861726
69.000000 81.567805 517.416638
69.000000 83.075336 518.063019
69.000000 84.524652 518.798265
69.000000 85.909917 519.619416
69.000000 87.225553 520.523165
69.000000 88.466262 521.505874
69.000000 89.627048 522.563585
69.000000 90.703238 523.692040
69.000000 91.690498 524.886694
69.000000 92.584852 526.142738
69.000000 93.382700 527.455113
69.000000 94.080828 528.818534
69.000000 94.676426 530.227513
89.000000 87.627901 531.244893
89.000000 88.145230 532.511227
89.000000 88.566101 533.815256
89.000000 88.888818 535.151731
89.000000 89.112082 536.515268
89.000000 89.234994 537.900379
89.000000 89.257059 539.301484
89.000000 89.178188 540.712944
89.000000 88.998699 542.129074
89.000000 88.719315 543.544172
89.000000 88.341160 544.952539
89.000000 87.865757 546.348506
89.000000 87.295021 547.726451
89.000000 86.631249 549.080824
89.000000 85.877115 550.406174
89.000000 85.035655 551.697163
89.000000 84.110257 552.948592
89.000000 83.104648 554.155423
89.000000 82.022876 555.312796
89.000000 80.869299 556.416051
89.000000 79.648559 557.460745
89.000000 78.365575 558.442672
89.000000 77.025510 559.357878
89.000000 75.633762 560.202677
89.000000 74.195934 560.973669
89.000000 72.717817 561.667748
89.000000 71.205361 562.282120
89.000000 69.664657 562.814310
89.000000 68.101909 563.262177
89.000000 66.523410 563.623915
89.000000 64.935515 563.898070
89.000000 63.344619 564.083537
89.000000 61.757127 564.179568
89.000000 60.179432 564.185778
89.000000 58.617886 564.102142
89.000000 57.078778 563.928996
89.000000 55.568305 563.667037
89.000000 54.092548 563.317320
89.000000 52.657451 562.881254
89.000000 51.268791 562.360594
89.000000 49.932162 561.757437
89.000000 48.652943 561.074212
89.000000 47.436288 560.313669
89.000000 46.287094 559.478871
89.000000 45.209989 558.573180
89.000000 44.209311 557.600242
89.000000 43.289088 556.563975
89.000000 42.453026 555.468552
89.000000 41.704492 554.318383
89.000000 41.046499 553.118100
89.000000 40.481697 551.872537
89.000000 40.012361 550.586708
89.000000 39.640380 549.265791
89.000000 39.367252 547.915105
89.000000 39.194076 546.540089
89.000000 39.121551 545.146279
89.000000 39.149969 543.739288
89.000000 39.279213 542.324781
89.000000 39.508766 540.908454
89.000000 39.837701 539.496010
89.000000 40.264695 538.093137
89.000000 40.788028 536.705482
89.000000 41.405593 535.338635
89.000000 42.114903 533.998098
89.000000 42.913102 532.689270
89.000000 43.796976 531.417421
89.000000 44.762966 530.187672
89.000000 45.807182 529.004975
89.000000 46.925419 527.874091
89.000000 48.113176 526.799576
89.000000 49.365668 525.785755
89.000000 50.677854 524.836710
89.000000 52.044448 523.956264
89.000000 53.459948 523.147962
89.000000 54.918656 522.415058
89.000000 56.414695 521.760503
89.000000 57.942044 521.186933
89.000000 59.494552 520.696658
89.000000 61.065966 520.291651
89.000000 62.649961 519.973544
89.000000 64.240157 519.743618
89.000000 65.830152 519.602798
89.000000 67.413542 519.551651
89.000000 68.983953 519.590384
89.000000 70.535061 519.718840
89.000000 72.060620 519.936502
89.000000 73.554487 520.242494
89.000000 75.010647 520.635583
89.000000 76.423237 521.114187
89.000000 77.786568 521.676378
89.000000 79.095150 522.319894
89.000000 80.343716 523.042141
89.000000 81.527236 523.840214
89.000000 82.640946 524.710897
89.000000 83.680361 525.650684
89.000000 84.641296 526.655793
89.000000 85.519880 527.722175
89.000000 86.312578 528.845536
89.000000 87.016196 530.021354
89.000000 87.627901 531.244893
